# .PCD v0.7 - Point Cloud Data file format
VERSION 0.7
FIELDS x y z rgb
SIZE 4 4 4 4
TYPE F F F F
COUNT 1 1 1 1
WIDTH 1282
HEIGHT 1
VIEWPOINT 0 0 0 1 0 0 0
POINTS 1282
DATA ascii
2.039 0.29675084 -0.62210417 0
1.698 0.065502368 -0.5180642 0
1.6900001 0.062230408 -0.51562339 0
1.6900001 0.059267059 -0.51562339 0
1.698 0.056570228 -0.5180642 1.2437028e-38
1.698 0.053592846 -0.5180642 1.2621062e-38
1.698 0.050615463 -0.5180642 1.2159723e-38
1.698 0.047638085 -0.5180642 1.2067161e-38
1.698 0.044660706 -0.5180642 1.1973521e-38
1.706 0.04187971 -0.52050501 1.1788408e-38
1.706 0.038888305 -0.52050501 1.1788409e-38
1.715 0.036086272 -0.52325094 1.1789135e-38
1.715 0.03307908 -0.52325094 1.1789135e-38
1.715 0.030071892 -0.52325094 1.1879889e-38
1.715 0.027064703 -0.52325094 0
1.715 0.024057515 -0.52325094 0
1.715 0.021050325 -0.52325094 0
1.706 0.017948449 -0.52050501 0
1.706 0.01495704 -0.52050501 1.215972e-38
1.698 0.011909521 -0.5180642 1.2991276e-38
1.698 0.0089321407 -0.5180642 1.2991997e-38
1.6900001 0.0059267054 -0.51562339 1.3267511e-38
1.6900001 0.0029633527 -0.51562339 1.3450823e-38
1.6900001 -0 -0.51562339 1.3450459e-38
1.6900001 -0.0029633527 -0.51562339 1.354301e-38
1.6900001 -0.0059267054 -0.51562339 1.3909995e-38
1.6900001 -0.0088900579 -0.51562339 1.3910351e-38
1.6900001 -0.011853411 -0.51562339 1.3542288e-38
1.6900001 -0.014816765 -0.51562339 1.326642e-38
1.681 -0.01768543 -0.5128774 1.2897641e-38
1.681 -0.020633001 -0.5128774 1.2529218e-38
1.98 -0.170121 -0.60410309 0
1.98 -0.17359285 -0.60410309 1.3272567e-38
1.969 -0.17608102 -0.60074699 1.3270039e-38
1.969 -0.17953359 -0.60074699 1.4097993e-38
1.969 -0.18298616 -0.60074699 1.2899085e-38
1.9579999 -0.18539715 -0.59739083 0
1.947 -0.18776959 -0.59403473 0
1.947 -0.19118358 -0.59403473 0
1.947 -0.19459759 -0.59403473 0
2.027 0.31988427 -0.62199724 0
2.027 0.31633002 -0.62199724 0
2.027 0.31277573 -0.62199724 0
2.027 0.30922148 -0.62199724 0
2.039 0.30747679 -0.62567949 0
2.027 0.30211294 -0.62199724 0
2.027 0.29855865 -0.62199724 0
1.698 0.068479754 -0.52104157 0
1.706 0.065810971 -0.52349639 0
1.6900001 0.062230408 -0.5185867 0
1.698 0.059547607 -0.52104157 0
1.698 0.056570228 -0.52104157 1.2161163e-38
1.698 0.053592846 -0.52104157 1.2621062e-38
1.698 0.050615463 -0.52104157 1.2159723e-38
1.698 0.047638085 -0.52104157 1.2159357e-38
1.698 0.044660706 -0.52104157 1.1882044e-38
1.706 0.04187971 -0.52349639 1.1788408e-38
1.706 0.038888305 -0.52349639 1.1788409e-38
1.715 0.036086272 -0.52625811 1.1789135e-38
1.715 0.03307908 -0.52625811 1.1789135e-38
1.715 0.030071892 -0.52625811 1.1788053e-38
1.715 0.027064703 -0.52625811 0
1.715 0.024057515 -0.52625811 0
1.715 0.021050325 -0.52625811 0
1.715 0.018043136 -0.52625811 0
1.715 0.015035946 -0.52625811 1.2344114e-38
1.698 0.011909521 -0.52104157 1.2991276e-38
1.698 0.0089321407 -0.52104157 1.3083474e-38
1.6900001 0.0059267054 -0.5185867 1.3267868e-38
1.6900001 0.0029633527 -0.5185867 1.3358985e-38
1.6900001 -0 -0.5185867 1.3451177e-38
1.6900001 -0.0029633527 -0.5185867 1.3635206e-38
1.6900001 -0.0059267054 -0.5185867 1.3726683e-38
1.681 -0.0088427151 -0.51582497 1.372668e-38
1.681 -0.011790286 -0.51582497 1.3542288e-38
1.6900001 -0.014816765 -0.5185867 1.3357897e-38
1.6900001 -0.017780116 -0.5185867 1.2897638e-38
1.681 -0.020633001 -0.51582497 1.2621054e-38
1.98 -0.170121 -0.607575 0
1.98 -0.17359285 -0.607575 0
1.969 -0.17608102 -0.60419953 1.3271481e-38
1.969 -0.17953359 -0.60419953 1.3637738e-38
1.9579999 -0.18196388 -0.60082412 1.3452619e-38
1.9579999 -0.18539715 -0.60082412 0
1.947 -0.18776959 -0.59744871 0
1.947 -0.19118358 -0.59744871 0
1.947 -0.19459759 -0.59744871 0
2.039 0.33250394 -0.62925482 0
2.039 0.32892865 -0.62925482 0
2.027 0.31988427 -0.62555146 0
2.039 0.31820273 -0.62925482 0
2.027 0.31277573 -0.62555146 0
2.039 0.31105208 -0.62925482 0
2.039 0.30747679 -0.62925482 0
2.027 0.30211294 -0.62555146 0
2.027 0.29855865 -0.62555146 0
1.698 0.071457125 -0.52401894 0
1.698 0.068479754 -0.52401894 0
1.698 0.065502368 -0.52401894 0
1.6900001 0.062230408 -0.52155006 0
1.698 0.059547607 -0.52401894 0
1.698 0.056570228 -0.52401894 1.2071128e-38
1.698 0.053592846 -0.52401894 1.2620698e-38
1.698 0.050615463 -0.52401894 1.2619612e-38
1.698 0.047638085 -0.52401894 1.2159354e-38
1.698 0.044660706 -0.52401894 1.2066435e-38
1.706 0.04187971 -0.52648777 0
1.706 0.038888305 -0.52648777 0
1.715 0.036086272 -0.52926528 0
1.715 0.03307908 -0.52926528 0
1.715 0.030071892 -0.52926528 0
1.715 0.027064703 -0.52926528 0
1.715 0.024057515 -0.52926528 0
1.715 0.021050325 -0.52926528 0
1.715 0.018043136 -0.52926528 0
1.715 0.015035946 -0.52926528 0
1.698 0.011909521 -0.52401894 1.2990197e-38
1.698 0.0089321407 -0.52401894 1.3174588e-38
1.6900001 0.0059267054 -0.52155006 1.3266786e-38
1.6900001 0.0029633527 -0.52155006 1.3358982e-38
1.6900001 -0 -0.52155006 1.3358979e-38
1.6900001 -0.0029633527 -0.52155006 1.3451175e-38
1.681 -0.0058951429 -0.51877254 1.3451175e-38
1.681 -0.0088427151 -0.51877254 1.3451531e-38
1.681 -0.011790286 -0.51877254 1.3450812e-38
1.681 -0.014737858 -0.51877254 1.3358253e-38
1.6900001 -0.017780116 -0.52155006 1.2988392e-38
1.98 -0.170121 -0.61104685 0
1.969 -0.17262843 -0.60765213 0
1.969 -0.17608102 -0.60765213 1.3089247e-38
1.969 -0.17953359 -0.60765213 1.3640615e-38
1.9579999 -0.18196388 -0.6042574 1.317783e-38
1.9579999 -0.18539715 -0.6042574 0
1.947 -0.18776959 -0.60086268 0
1.947 -0.19118358 -0.60086268 0
1.947 -0.19459759 -0.60086268 0
1.947 -0.19801158 -0.60086268 0
2.0510001 0.33446082 -0.63655448 0
2.039 0.32892865 -0.63283014 0
2.027 0.32343856 -0.62910575 0
2.027 0.31988427 -0.62910575 0
2.039 0.31820273 -0.63283014 0
2.027 0.31277573 -0.62910575 0
2.039 0.31105208 -0.63283014 0
2.039 0.30747679 -0.63283014 0
2.027 0.30211294 -0.62910575 0
2.027 0.29855865 -0.62910575 0
1.698 0.071457125 -0.52699631 0
1.698 0.068479754 -0.52699631 0
1.6900001 0.062230408 -0.52451342 0
1.698 0.059547607 -0.52699631 0
1.698 0.056570228 -0.52699631 1.1887456e-38
1.698 0.053592846 -0.52699631 1.2621054e-38
1.698 0.050615463 -0.52699631 1.2711086e-38
1.698 0.047638085 -0.52699631 1.2343022e-38
1.698 0.044660706 -0.52699631 1.1883123e-38
1.706 0.04187971 -0.52947927 0
1.706 0.038888305 -0.52947927 0
1.715 0.036086272 -0.53227246 0
1.715 0.03307908 -0.53227246 0
1.715 0.030071892 -0.53227246 0
1.715 0.027064703 -0.53227246 0
1.715 0.024057515 -0.53227246 0
1.715 0.021050325 -0.53227246 0
1.715 0.018043136 -0.53227246 0
1.715 0.015035946 -0.53227246 0
1.698 0.011909521 -0.52699631 1.2898001e-38
1.698 0.0089321407 -0.52699631 1.3359335e-38
1.6900001 0.0059267054 -0.52451342 1.3450815e-38
1.6900001 0.0029633527 -0.52451342 1.3358619e-38
1.6900001 -0 -0.52451342 1.3266783e-38
1.6900001 -0.0029633527 -0.52451342 1.3175667e-38
1.6900001 -0.0059267054 -0.52451342 1.3268218e-38
1.681 -0.0088427151 -0.52172011 1.3268218e-38
1.681 -0.011790286 -0.52172011 1.3543723e-38
1.6900001 -0.014816765 -0.52451342 1.363484e-38
1.6900001 -0.017780116 -0.52451342 1.3357174e-38
1.98 -0.170121 -0.6145187 0
1.969 -0.17262843 -0.61110467 0
1.969 -0.17608102 -0.61110467 1.2721904e-38
1.969 -0.17953359 -0.61110467 1.3549139e-38
1.9579999 -0.18196388 -0.60769069 1.3178191e-38
1.9579999 -0.18539715 -0.60769069 0
1.9579999 -0.18883044 -0.60769069 0
1.9579999 -0.19226372 -0.60769069 0
1.9579999 -0.19569699 -0.60769069 0
1.9579999 -0.19913028 -0.60769069 0
2.0510001 0.33446082 -0.64015085 0
2.039 0.32892865 -0.63640547 0
2.027 0.32343856 -0.63266003 0
2.027 0.31988427 -0.63266003 0
2.027 0.31633002 -0.63266003 0
2.027 0.31277573 -0.63266003 0
2.027 0.30922148 -0.63266003 0
2.027 0.30566719 -0.63266003 0
2.027 0.30211294 -0.63266003 0
2.027 0.29855865 -0.63266003 0
1.698 0.071457125 -0.52997369 0
1.698 0.068479754 -0.52997369 0
1.6900001 0.062230408 -0.52747679 0
1.698 0.059547607 -0.52997369 0
1.698 0.056570228 -0.52997369 1.179526e-38
1.6900001 0.053340353 -0.52747679 1.2620335e-38
1.698 0.050615463 -0.52997369 1.2803282e-38
1.698 0.047638085 -0.52997369 1.2619612e-38
1.706 0.044871122 -0.53247064 1.2158631e-38
1.706 0.04187971 -0.53247064 0
1.715 0.039093461 -0.53527975 0
1.715 0.036086272 -0.53527975 0
1.723 0.033233389 -0.53777665 0
1.715 0.030071892 -0.53527975 0
1.715 0.027064703 -0.53527975 0
1.715 0.024057515 -0.53527975 0
1.715 0.021050325 -0.53527975 0
1.715 0.018043136 -0.53527975 0
1.706 0.01495704 -0.53247064 0
1.698 0.011909521 -0.52997369 1.2990197e-38
1.698 0.0089321407 -0.52997369 1.3543726e-38
1.6900001 0.0059267054 -0.52747679 1.3635206e-38
1.6900001 0.0029633527 -0.52747679 1.3358263e-38
1.681 -0 -0.52466768 1.3358979e-38
1.681 -0.0029475715 -0.52466768 1.3267862e-38
1.681 -0.0058951429 -0.52466768 1.3268218e-38
1.681 -0.0088427151 -0.52466768 1.3268218e-38
1.681 -0.011790286 -0.52466768 1.3543005e-38
1.6900001 -0.014816765 -0.52747679 1.3542644e-38
1.681 -0.01768543 -0.52466768 1.3357174e-38
1.681 -0.020633001 -0.52466768 1.2988394e-38
1.98 -0.170121 -0.61799055 0
1.969 -0.17262843 -0.61455727 0
1.969 -0.17608102 -0.61455727 0
1.969 -0.17953359 -0.61455727 1.3549139e-38
1.9579999 -0.18196388 -0.61112398 1.3546974e-38
1.9579999 -0.18539715 -0.61112398 0
1.9579999 -0.18883044 -0.61112398 0
1.9579999 -0.19226372 -0.61112398 0
1.9579999 -0.19569699 -0.61112398 0
1.9579999 -0.19913028 -0.61112398 0
2.039 0.33250394 -0.63998073 0
2.027 0.32699281 -0.63621426 0
2.027 0.32343856 -0.63621426 0
2.027 0.31633002 -0.63621426 0
2.027 0.31277573 -0.63621426 0
2.027 0.30922148 -0.63621426 0
2.027 0.30566719 -0.63621426 0
2.0150001 0.30032441 -0.6324479 0
2.0150001 0.2967912 -0.6324479 0
1.698 0.071457125 -0.53295106 0
1.698 0.068479754 -0.53295106 0
1.6900001 0.062230408 -0.53044015 0
1.698 0.059547607 -0.53295106 0
1.6900001 0.056303702 -0.53044015 1.179526e-38
1.6900001 0.053340353 -0.53044015 1.2712531e-38
1.698 0.050615463 -0.53295106 1.2895477e-38
1.698 0.047638085 -0.53295106 1.2803284e-38
1.698 0.044660706 -0.53295106 1.2435218e-38
1.706 0.04187971 -0.53546202 1.1882043e-38
1.706 0.038888305 -0.53546202 0
1.715 0.036086272 -0.53828692 0
1.715 0.03307908 -0.53828692 0
1.715 0.030071892 -0.53828692 0
1.715 0.027064703 -0.53828692 0
1.715 0.024057515 -0.53828692 0
1.715 0.021050325 -0.53828692 0
1.715 0.018043136 -0.53828692 0
1.706 0.01495704 -0.53546202 0
1.698 0.011909521 -0.53295106 1.3082392e-38
1.698 0.0089321407 -0.53295106 1.3451531e-38
1.6900001 0.0059267054 -0.53044015 1.3542654e-38
1.6900001 0.0029633527 -0.53044015 1.3450459e-38
1.681 -0 -0.52761525 1.3450815e-38
1.681 -0.0029475715 -0.52761525 1.3451175e-38
1.6900001 -0.0059267054 -0.53044015 1.3176023e-38
1.6900001 -0.0088900579 -0.53044015 1.3083827e-38
1.6900001 -0.011853411 -0.53044015 1.3358613e-38
1.6900001 -0.014816765 -0.53044015 1.3358253e-38
1.6900001 -0.017780116 -0.53044015 1.326426e-38
1.698 -0.020841662 -0.53295106 1.2804003e-38
1.698 -0.023819042 -0.53295106 0
1.98 -0.170121 -0.6214624 0
1.969 -0.17262843 -0.61800981 0
1.969 -0.17608102 -0.61800981 0
1.969 -0.17953359 -0.61800981 1.3457665e-38
1.9579999 -0.18196388 -0.61455727 1.3363662e-38
1.9579999 -0.18539715 -0.61455727 0
1.9579999 -0.18883044 -0.61455727 0
1.9579999 -0.19226372 -0.61455727 0
1.9579999 -0.19569699 -0.61455727 0
1.9579999 -0.19913028 -0.61455727 0
2.039 0.33250394 -0.64355606 0
2.027 0.32699281 -0.63976854 0
2.0150001 0.32152379 -0.63598108 0
2.027 0.31633002 -0.63976854 0
2.027 0.31277573 -0.63976854 0
2.027 0.30922148 -0.63976854 0
2.027 0.30566719 -0.63976854 0
2.027 0.30211294 -0.63976854 0
2.027 0.29855865 -0.63976854 0
1.698 0.071457125 -0.53592843 0
1.698 0.068479754 -0.53592843 0
1.698 0.065502368 -0.53592843 0
1.698 0.062524982 -0.53592843 0
1.6900001 0.059267059 -0.53340352 0
1.6900001 0.056303702 -0.53340352 1.1794904e-38
1.6900001 0.053340353 -0.53340352 1.2712533e-38
1.698 0.050615463 -0.53592843 1.289548e-38
1.698 0.047638085 -0.53592843 1.2803284e-38
1.698 0.044660706 -0.53592843 1.2435218e-38
1.706 0.04187971 -0.53845346 1.2066434e-38
1.706 0.038888305 -0.53845346 1.1789847e-38
1.715 0.036086272 -0.5412941 0
1.715 0.03307908 -0.5412941 0
1.715 0.030071892 -0.5412941 0
1.715 0.027064703 -0.5412941 0
1.715 0.024057515 -0.5412941 0
1.715 0.021050325 -0.5412941 0
1.715 0.018043136 -0.5412941 0
1.706 0.01495704 -0.53845346 1.1976047e-38
1.706 0.011965632 -0.53845346 1.3266783e-38
1.698 0.0089321407 -0.53592843 1.3359335e-38
1.6900001 0.0059267054 -0.53340352 1.3450459e-38
1.681 0.0029475715 -0.53056288 1.3542654e-38
1.6900001 -0 -0.53340352 1.3450815e-38
1.681 -0.0029475715 -0.53056288 1.3450815e-38
1.6900001 -0.0059267054 -0.53340352 1.3083827e-38
1.6900001 -0.0088900579 -0.53340352 1.3174944e-38
1.6900001 -0.011853411 -0.53340352 1.3266418e-38
1.6900001 -0.014816765 -0.53340352 1.3266058e-38
1.6900001 -0.017780116 -0.53340352 1.3172064e-38
1.698 -0.020841662 -0.53592843 1.2711808e-38
1.6900001 -0.023706822 -0.53340352 0
1.6900001 -0.026670177 -0.53340352 0
1.98 -0.170121 -0.62493426 0
1.969 -0.17608102 -0.62146235 0
1.969 -0.17953359 -0.62146235 0
1.9579999 -0.18196388 -0.61799055 1.391648e-38
1.9579999 -0.18539715 -0.61799055 1.1794177e-38
1.9579999 -0.18883044 -0.61799055 0
1.9579999 -0.19226372 -0.61799055 0
1.9579999 -0.19569699 -0.61799055 0
1.9579999 -0.19913028 -0.61799055 0
2.0150001 0.32859024 -0.63951433 0
2.027 0.32699281 -0.64332283 0
2.0150001 0.32152379 -0.63951433 0
2.027 0.31633002 -0.64332283 0
2.027 0.31277573 -0.64332283 0
2.027 0.30922148 -0.64332283 0
2.027 0.30566719 -0.64332283 0
2.027 0.30211294 -0.64332283 0
2.027 0.29855865 -0.64332283 0
2.027 0.2950044 -0.64332283 0
1.698 0.071457125 -0.5389058 0
1.698 0.068479754 -0.5389058 0
1.698 0.065502368 -0.5389058 0
1.6900001 0.062230408 -0.53636688 0
1.6900001 0.059267059 -0.53636688 0
1.6900001 0.056303702 -0.53636688 1.1794904e-38
1.698 0.053592846 -0.5389058 1.2712533e-38
1.698 0.050615463 -0.5389058 1.289548e-38
1.698 0.047638085 -0.5389058 1.2526697e-38
1.698 0.044660706 -0.5389058 1.2250827e-38
1.706 0.04187971 -0.54144484 1.1974238e-38
1.706 0.038888305 -0.54144484 1.1789847e-38
1.715 0.036086272 -0.54430127 0
1.715 0.03307908 -0.54430127 0
1.715 0.030071892 -0.54430127 0
1.715 0.027064703 -0.54430127 0
1.715 0.024057515 -0.54430127 0
1.715 0.021050325 -0.54430127 0
1.706 0.017948449 -0.54144484 0
1.706 0.01495704 -0.54144484 1.2068243e-38
1.706 0.011965632 -0.54144484 1.3358979e-38
1.698 0.0089321407 -0.5389058 1.3358979e-38
1.6900001 0.0059267054 -0.53636688 1.3450459e-38
1.681 0.0029475715 -0.53351045 1.3727045e-38
1.6900001 -0 -0.53636688 1.3634487e-38
1.6900001 -0.0029633527 -0.53636688 1.354301e-38
1.6900001 -0.0059267054 -0.53636688 1.3267139e-38
1.6900001 -0.0088900579 -0.53636688 1.3174944e-38
1.6900001 -0.011853411 -0.53636688 1.3358253e-38
1.6900001 -0.014816765 -0.53636688 1.3357174e-38
1.6900001 -0.017780116 -0.53636688 1.2987673e-38
1.6900001 -0.020743469 -0.53636688 1.2435221e-38
1.6900001 -0.023706822 -0.53636688 0
1.6900001 -0.026670177 -0.53636688 0
1.969 -0.17262843 -0.624915 0
1.969 -0.17608102 -0.624915 0
1.969 -0.17953359 -0.624915 0
1.9579999 -0.18196388 -0.62142378 1.3547698e-38
1.9579999 -0.18539715 -0.62142378 1.2162961e-38
1.9579999 -0.18883044 -0.62142378 0
1.9579999 -0.19226372 -0.62142378 0
1.9579999 -0.19569699 -0.62142378 0
1.9579999 -0.19913028 -0.62142378 0
2.003 0.32663336 -0.63921797 0
2.0150001 0.325057 -0.64304757 0
2.0150001 0.32152379 -0.64304757 0
2.027 0.31633002 -0.64687711 0
2.027 0.31277573 -0.64687711 0
2.039 0.31105208 -0.65070665 0
2.027 0.30566719 -0.64687711 0
2.027 0.30211294 -0.64687711 0
2.027 0.29855865 -0.64687711 0
2.027 0.2950044 -0.64687711 0
1.698 0.071457125 -0.54188317 0
1.698 0.068479754 -0.54188317 0
1.698 0.065502368 -0.54188317 0
1.6900001 0.062230408 -0.53933024 0
1.6900001 0.059267059 -0.53933024 0
1.6900001 0.056303702 -0.53933024 1.1794904e-38
1.6900001 0.053340353 -0.53933024 1.2619982e-38
1.698 0.050615463 -0.54188317 1.2711091e-38
1.698 0.047638085 -0.54188317 1.2434505e-38
1.698 0.044660706 -0.54188317 1.2158634e-38
1.706 0.04187971 -0.54443628 1.1973878e-38
1.706 0.038888305 -0.54443628 0
1.706 0.035896897 -0.54443628 0
1.715 0.03307908 -0.54730844 0
1.715 0.030071892 -0.54730844 0
1.715 0.027064703 -0.54730844 0
1.715 0.024057515 -0.54730844 0
1.706 0.020939855 -0.54443628 0
1.706 0.017948449 -0.54443628 0
1.706 0.01495704 -0.54443628 1.1883852e-38
1.698 0.011909521 -0.54188317 1.3266783e-38
1.698 0.0089321407 -0.54188317 1.3451175e-38
1.6900001 0.0059267054 -0.53933024 1.3542654e-38
1.6900001 0.0029633527 -0.53933024 1.3727045e-38
1.6900001 -0 -0.53933024 1.3726683e-38
1.681 -0.0029475715 -0.53645802 1.3634487e-38
1.6900001 -0.0059267054 -0.53933024 1.3450812e-38
1.6900001 -0.0088900579 -0.53933024 1.3267139e-38
1.6900001 -0.011853411 -0.53933024 1.3358253e-38
1.681 -0.014737858 -0.53645802 1.3357174e-38
1.681 -0.01768543 -0.53645802 1.2803284e-38
1.6900001 -0.020743469 -0.53933024 1.2158634e-38
1.98 -0.17706472 -0.63187802 0
1.969 -0.17953359 -0.62836754 0
1.969 -0.18298616 -0.62836754 1.3639896e-38
1.9579999 -0.18539715 -0.62485707 1.2623583e-38
1.9579999 -0.18883044 -0.62485707 0
1.969 -0.19334386 -0.62836754 0
1.9579999 -0.19569699 -0.62485707 0
1.9579999 -0.19913028 -0.62485707 0
1.9579999 -0.20256355 -0.62485707 0
2.003 0.33014554 -0.64273018 0
2.003 0.32663336 -0.64273018 0
2.0150001 0.325057 -0.64658082 0
2.0150001 0.31799054 -0.64658082 0
2.0150001 0.31445733 -0.64658082 0
2.027 0.31277573 -0.65043133 0
2.039 0.31105208 -0.65428197 0
2.027 0.30566719 -0.65043133 0
2.027 0.30211294 -0.65043133 0
2.0150001 0.2967912 -0.64658082 0
2.0150001 0.29325795 -0.64658082 0
1.6900001 0.071120463 -0.54229355 0
1.698 0.068479754 -0.5448606 0
1.698 0.065502368 -0.5448606 0
1.6900001 0.062230408 -0.54229355 0
1.6900001 0.059267059 -0.54229355 0
1.6900001 0.056303702 -0.54229355 0
1.6900001 0.053340353 -0.54229355 1.2527786e-38
1.6900001 0.050376996 -0.54229355 1.2618896e-38
1.698 0.047638085 -0.5448606 1.2434865e-38
1.698 0.044660706 -0.5448606 1.2158634e-38
1.706 0.04187971 -0.54742765 1.1789487e-38
1.706 0.038888305 -0.54742765 0
1.706 0.035896897 -0.54742765 0
1.715 0.03307908 -0.55031562 0
1.715 0.030071892 -0.55031562 0
1.706 0.026922673 -0.54742765 0
1.715 0.024057515 -0.55031562 0
1.706 0.020939855 -0.54742765 0
1.706 0.017948449 -0.54742765 0
1.706 0.01495704 -0.54742765 0
1.698 0.011909521 -0.5448606 1.3082392e-38
1.698 0.0089321407 -0.5448606 1.3451175e-38
1.6900001 0.0059267054 -0.54229355 1.3542654e-38
1.6900001 0.0029633527 -0.54229355 1.3450459e-38
1.6900001 -0 -0.54229355 1.3542294e-38
1.6900001 -0.0029633527 -0.54229355 1.3542291e-38
1.681 -0.0058951429 -0.53940558 1.3358616e-38
1.681 -0.0088427151 -0.53940558 1.3358616e-38
1.6900001 -0.011853411 -0.54229355 1.3542644e-38
1.6900001 -0.014816765 -0.54229355 1.3541565e-38
1.681 -0.01768543 -0.53940558 1.2987676e-38
1.98 -0.17706472 -0.63534981 0
1.98 -0.18053657 -0.63534981 0
1.969 -0.18298616 -0.63182008 1.3271476e-38
1.9579999 -0.18539715 -0.62829036 1.308528e-38
1.9579999 -0.18883044 -0.62829036 0
1.969 -0.19334386 -0.63182008 0
1.9579999 -0.19569699 -0.62829036 0
1.9579999 -0.19913028 -0.62829036 0
1.9579999 -0.20256355 -0.62829036 0
2.003 0.33014554 -0.64624232 0
2.0150001 0.32859024 -0.650114 0
2.0150001 0.325057 -0.650114 0
2.0150001 0.31799054 -0.650114 0
2.0150001 0.31445733 -0.650114 0
2.027 0.31277573 -0.65398562 0
2.039 0.31105208 -0.6578573 0
2.027 0.30566719 -0.65398562 0
2.027 0.30211294 -0.65398562 0
2.027 0.29855865 -0.65398562 0
2.0150001 0.29325795 -0.650114 0
1.6900001 0.071120463 -0.54525691 0
1.698 0.068479754 -0.54783803 0
1.698 0.065502368 -0.54783803 0
1.6900001 0.062230408 -0.54525691 0
1.6900001 0.059267059 -0.54525691 0
1.6900001 0.056303702 -0.54525691 1.1794907e-38
1.6900001 0.053340353 -0.54525691 1.2620701e-38
1.6900001 0.050376996 -0.54525691 1.2434505e-38
1.6900001 0.047413643 -0.54525691 1.2342669e-38
1.6900001 0.044450291 -0.54525691 1.2066438e-38
1.698 0.041683324 -0.54783803 1.1881683e-38
1.698 0.038705945 -0.54783803 1.1789484e-38
1.698 0.035728563 -0.54783803 0
1.706 0.032905485 -0.55041909 0
1.706 0.029914079 -0.55041909 0
1.706 0.026922673 -0.55041909 0
1.706 0.023931265 -0.55041909 0
1.706 0.020939855 -0.55041909 0
1.706 0.017948449 -0.55041909 0
1.698 0.014886902 -0.54783803 0
1.698 0.011909521 -0.54783803 1.3266783e-38
1.698 0.0089321407 -0.54783803 1.354337e-38
1.6900001 0.0059267054 -0.54525691 1.3543373e-38
1.6900001 0.0029633527 -0.54525691 1.3542654e-38
1.6900001 -0 -0.54525691 1.3726685e-38
1.681 -0.0029475715 -0.54235315 1.3634487e-38
1.681 -0.0058951429 -0.54235315 1.3358616e-38
1.681 -0.0088427151 -0.54235315 1.3358616e-38
1.681 -0.011790286 -0.54235315 1.3450449e-38
1.681 -0.014737858 -0.54235315 1.3357174e-38
1.992 -0.17813782 -0.64269328 0
1.98 -0.18053657 -0.63882172 0
1.969 -0.18298616 -0.63527268 1.3087086e-38
1.9579999 -0.18539715 -0.6317237 1.2532109e-38
1.9579999 -0.18883044 -0.6317237 0
1.9579999 -0.19226372 -0.6317237 0
1.9579999 -0.19569699 -0.6317237 0
1.9579999 -0.19913028 -0.6317237 0
1.9579999 -0.20256355 -0.6317237 0
1.9579999 -0.20599684 -0.6317237 0
2.003 0.33014554 -0.64975452 0
2.0150001 0.32859024 -0.65364724 0
2.0150001 0.325057 -0.65364724 0
2.0150001 0.32152379 -0.65364724 0
2.0150001 0.31799054 -0.65364724 0
2.0150001 0.31445733 -0.65364724 0
2.027 0.31277573 -0.6575399 0
2.039 0.31105208 -0.66143256 0
2.027 0.30566719 -0.6575399 0
2.027 0.30211294 -0.6575399 0
2.0150001 0.2967912 -0.65364724 0
2.0150001 0.29325795 -0.65364724 0
1.698 0.071457125 -0.5508154 0
1.698 0.068479754 -0.5508154 0
1.698 0.065502368 -0.5508154 0
1.6900001 0.062230408 -0.54822028 0
1.6900001 0.059267059 -0.54822028 0
1.6900001 0.056303702 -0.54822028 0
1.6900001 0.053340353 -0.54822028 1.2620701e-38
1.6900001 0.050376996 -0.54822028 1.2711452e-38
1.6900001 0.047413643 -0.54822028 1.2342669e-38
1.6900001 0.044450291 -0.54822028 1.2066438e-38
1.6900001 0.041486938 -0.54822028 1.1881683e-38
1.6900001 0.038523588 -0.54822028 0
1.698 0.035728563 -0.5508154 0
1.698 0.032751184 -0.5508154 0
1.706 0.029914079 -0.55341047 0
1.706 0.026922673 -0.55341047 0
1.706 0.023931265 -0.55341047 0
1.698 0.020841662 -0.5508154 0
1.698 0.017864281 -0.5508154 0
1.698 0.014886902 -0.5508154 0
1.6900001 0.011853411 -0.54822028 1.3266783e-38
1.6900001 0.0088900579 -0.54822028 1.3635566e-38
1.6900001 0.0059267054 -0.54822028 1.3635569e-38
1.6900001 0.0029633527 -0.54822028 1.3542654e-38
1.6900001 -0 -0.54822028 1.3726683e-38
1.6900001 -0.0029633527 -0.54822028 1.3542291e-38
1.681 -0.0058951429 -0.54530072 1.3358616e-38
1.681 -0.0088427151 -0.54530072 1.326642e-38
1.681 -0.011790286 -0.54530072 1.3266058e-38
1.681 -0.014737858 -0.54530072 1.3264979e-38
1.992 -0.17464493 -0.64618623 0
1.992 -0.17813782 -0.64618623 0
1.98 -0.18053657 -0.64229357 0
1.969 -0.18298616 -0.63872522 1.308781e-38
1.969 -0.18643871 -0.63872522 1.2901255e-38
1.969 -0.18989128 -0.63872522 0
1.9579999 -0.19226372 -0.63515693 0
1.9579999 -0.19569699 -0.63515693 0
1.9579999 -0.19913028 -0.63515693 0
1.947 -0.20142557 -0.63158864 0
1.947 -0.20483956 -0.63158864 0
1.947 -0.20825355 -0.63158864 0
2.003 0.33014554 -0.65326673 0
2.0150001 0.32859024 -0.65718049 0
2.0150001 0.325057 -0.65718049 0
2.0150001 0.32152379 -0.65718049 0
2.0150001 0.31799054 -0.65718049 0
2.027 0.31633002 -0.66109419 0
2.027 0.31277573 -0.66109419 0
2.039 0.31105208 -0.66500789 0
2.039 0.30747679 -0.66500789 0
2.027 0.30211294 -0.66109419 0
2.027 0.29855865 -0.66109419 0
2.0150001 0.29325795 -0.65718049 0
1.6900001 0.071120463 -0.55118358 0
1.698 0.068479754 -0.55379277 0
1.698 0.065502368 -0.55379277 0
1.6900001 0.062230408 -0.55118358 0
1.6900001 0.059267059 -0.55118358 0
1.6900001 0.056303702 -0.55118358 0
1.6900001 0.053340353 -0.55118358 1.2713258e-38
1.6900001 0.050376996 -0.55118358 1.2434865e-38
1.6900001 0.047413643 -0.55118358 1.2434865e-38
1.6900001 0.044450291 -0.55118358 1.2158631e-38
1.6900001 0.041486938 -0.55118358 1.1789847e-38
1.698 0.038705945 -0.55379277 0
1.6900001 0.035560232 -0.55118358 0
1.698 0.032751184 -0.55379277 0
1.706 0.029914079 -0.55640191 0
1.698 0.026796423 -0.55379277 0
1.698 0.023819042 -0.55379277 0
1.698 0.020841662 -0.55379277 0
1.6900001 0.017780116 -0.55118358 0
1.698 0.014886902 -0.55379277 0
1.6900001 0.011853411 -0.55118358 1.3083471e-38
1.6900001 0.0088900579 -0.55118358 1.3452254e-38
1.6900001 0.0059267054 -0.55118358 1.3635569e-38
1.681 0.0029475715 -0.54824829 1.3542654e-38
1.6900001 -0 -0.55118358 1.3634487e-38
1.681 -0.0029475715 -0.54824829 1.3542291e-38
1.681 -0.0058951429 -0.54824829 1.3358616e-38
1.681 -0.0088427151 -0.54824829 1.326642e-38
1.673 -0.011734175 -0.54563916 1.3266058e-38
1.673 -0.014667719 -0.54563916 1.2989471e-38
1.992 -0.17464493 -0.64967912 0
1.98 -0.18053657 -0.64576542 0
1.969 -0.18298616 -0.64217782 1.2811223e-38
1.969 -0.18643871 -0.64217782 1.2624668e-38
1.969 -0.18989128 -0.64217782 1.2163324e-38
1.9579999 -0.19226372 -0.63859022 0
1.9579999 -0.19569699 -0.63859022 0
1.9579999 -0.19913028 -0.63859022 0
1.947 -0.20142557 -0.63500261 0
1.947 -0.20483956 -0.63500261 0
1.947 -0.20825355 -0.63500261 0
2.0150001 0.32859024 -0.66071373 0
2.0150001 0.32152379 -0.66071373 0
2.0150001 0.31799054 -0.66071373 0
2.027 0.31633002 -0.66464841 0
2.027 0.31277573 -0.66464841 0
2.027 0.30922148 -0.66464841 0
2.039 0.30747679 -0.66858321 0
2.027 0.30211294 -0.66464841 0
2.027 0.29855865 -0.66464841 0
1.698 0.071457125 -0.55677015 0
1.698 0.068479754 -0.55677015 0
1.698 0.065502368 -0.55677015 0
1.6900001 0.059267059 -0.55414695 0
1.6900001 0.056303702 -0.55414695 0
1.6900001 0.053340353 -0.55414695 1.2253359e-38
1.6900001 0.050376996 -0.55414695 1.2712533e-38
1.6900001 0.047413643 -0.55414695 1.2434865e-38
1.6900001 0.044450291 -0.55414695 1.2066435e-38
1.6900001 0.041486938 -0.55414695 0
1.698 0.038705945 -0.55677015 0
1.6900001 0.035560232 -0.55414695 0
1.698 0.032751184 -0.55677015 0
1.698 0.029773803 -0.55677015 0
1.698 0.026796423 -0.55677015 0
1.698 0.023819042 -0.55677015 0
1.698 0.020841662 -0.55677015 0
1.6900001 0.017780116 -0.55414695 0
1.698 0.014886902 -0.55677015 0
1.6900001 0.011853411 -0.55414695 1.3083471e-38
1.6900001 0.0088900579 -0.55414695 1.345261e-38
1.6900001 0.0059267054 -0.55414695 1.3635569e-38
1.681 0.0029475715 -0.55119586 1.3450459e-38
1.681 -0 -0.55119586 1.3450096e-38
1.681 -0.0029475715 -0.55119586 1.3450093e-38
1.681 -0.0058951429 -0.55119586 1.3450812e-38
1.673 -0.0088006314 -0.54857266 1.3359335e-38
1.673 -0.011734175 -0.54857266 1.3358253e-38
1.673 -0.014667719 -0.54857266 1.2989471e-38
1.992 -0.17464493 -0.65317202 0
1.992 -0.17813782 -0.65317202 0
1.98 -0.18053657 -0.64923728 0
1.969 -0.18298616 -0.64563036 1.2443162e-38
1.9579999 -0.18539715 -0.6420235 1.345443e-38
1.9579999 -0.18883044 -0.6420235 1.2071128e-38
1.9579999 -0.19226372 -0.6420235 0
1.9579999 -0.19569699 -0.6420235 0
1.9579999 -0.19913028 -0.6420235 0
1.9579999 -0.20256355 -0.6420235 0
1.947 -0.20483956 -0.63841665 0
1.947 -0.20825355 -0.63841665 0
2.0150001 0.32859024 -0.66424692 0
2.0150001 0.32152379 -0.66424692 0
2.027 0.31988427 -0.6682027 0
2.027 0.31633002 -0.6682027 0
2.027 0.31277573 -0.6682027 0
2.027 0.30922148 -0.6682027 0
2.027 0.30566719 -0.6682027 0
2.027 0.30211294 -0.6682027 0
2.0150001 0.2967912 -0.66424692 0
2.0150001 0.29325795 -0.66424692 0
1.698 0.065502368 -0.55974752 0
1.6900001 0.059267059 -0.55711031 0
1.681 0.056003857 -0.55414343 0
1.6900001 0.053340353 -0.55711031 1.2161885e-38
1.6900001 0.050376996 -0.55711031 1.2620338e-38
1.6900001 0.047413643 -0.55711031 1.2342669e-38
1.6900001 0.044450291 -0.55711031 1.197424e-38
1.6900001 0.041486938 -0.55711031 0
1.698 0.038705945 -0.55974752 0
1.6900001 0.035560232 -0.55711031 0
1.706 0.032905485 -0.56238472 0
1.706 0.029914079 -0.56238472 0
1.698 0.026796423 -0.55974752 0
1.698 0.023819042 -0.55974752 0
1.698 0.020841662 -0.55974752 0
1.6900001 0.017780116 -0.55711031 0
1.6900001 0.014816765 -0.55711031 0
1.6900001 0.011853411 -0.55711031 1.289908e-38
1.6900001 0.0088900579 -0.55711031 1.3360414e-38
1.6900001 0.0059267054 -0.55711031 1.3360061e-38
1.681 0.0029475715 -0.55414343 1.3266786e-38
1.681 -0 -0.55414343 1.33579e-38
1.681 -0.0029475715 -0.55414343 1.3450093e-38
1.681 -0.0058951429 -0.55414343 1.3450812e-38
1.673 -0.0088006314 -0.55150622 1.3359332e-38
1.665 -0.011678064 -0.54886901 1.3450449e-38
1.665 -0.01459758 -0.54886901 1.3081666e-38
1.992 -0.17464493 -0.65666491 0
1.98 -0.18053657 -0.65270913 0
1.969 -0.18298616 -0.64908296 1.2350966e-38
1.969 -0.18643871 -0.64908296 1.2716865e-38
1.969 -0.18989128 -0.64908296 1.2255522e-38
1.9579999 -0.19226372 -0.64545679 0
1.9579999 -0.19569699 -0.64545679 0
1.9579999 -0.19913028 -0.64545679 0
1.947 -0.20142557 -0.64183062 0
1.947 -0.20483956 -0.64183062 0
2.0150001 0.325057 -0.66778016 0
2.0150001 0.32152379 -0.66778016 0
2.027 0.31988427 -0.67175698 0
2.0150001 0.31445733 -0.66778016 0
2.027 0.31277573 -0.67175698 0
2.027 0.30922148 -0.67175698 0
2.027 0.30566719 -0.67175698 0
2.027 0.30211294 -0.67175698 0
2.027 0.29855865 -0.67175698 0
2.0150001 0.29325795 -0.66778016 0
1.698 0.071457125 -0.56272489 0
1.698 0.065502368 -0.56272489 0
1.6900001 0.062230408 -0.56007367 0
1.6900001 0.059267059 -0.56007367 0
1.681 0.056003857 -0.557091 0
1.681 0.053056285 -0.557091 1.2161885e-38
1.6900001 0.050376996 -0.56007367 1.2712894e-38
1.6900001 0.047413643 -0.56007367 1.2159357e-38
1.6900001 0.044450291 -0.56007367 1.1882044e-38
1.6900001 0.041486938 -0.56007367 0
1.698 0.038705945 -0.56272489 0
1.698 0.035728563 -0.56272489 0
1.706 0.032905485 -0.5653761 0
1.706 0.029914079 -0.5653761 0
1.698 0.026796423 -0.56272489 0
1.698 0.023819042 -0.56272489 0
1.698 0.020841662 -0.56272489 0
1.6900001 0.017780116 -0.56007367 0
1.6900001 0.014816765 -0.56007367 0
1.6900001 0.011853411 -0.56007367 1.2714689e-38
1.6900001 0.0088900579 -0.56007367 1.3268218e-38
1.6900001 0.0059267054 -0.56007367 1.3267862e-38
1.681 0.0029475715 -0.557091 1.3266783e-38
1.681 -0 -0.557091 1.3450093e-38
1.681 -0.0029475715 -0.557091 1.3450093e-38
1.681 -0.0058951429 -0.557091 1.3358613e-38
1.681 -0.0088427151 -0.557091 1.3174941e-38
1.681 -0.011790286 -0.557091 1.3266418e-38
1.665 -0.01459758 -0.55178857 1.3081666e-38
1.992 -0.17464493 -0.66015786 0
1.992 -0.17813782 -0.66015786 0
1.98 -0.18053657 -0.65618098 0
1.9579999 -0.18196388 -0.64889002 0
1.9579999 -0.18539715 -0.64889002 1.2717585e-38
1.9579999 -0.18883044 -0.64889002 1.2993087e-38
1.9579999 -0.19226372 -0.64889002 0
1.947 -0.19459759 -0.6452446 0
1.947 -0.19801158 -0.6452446 0
1.947 -0.20142557 -0.6452446 0
1.947 -0.20483956 -0.6452446 0
2.0150001 0.32859024 -0.67131335 0
2.027 0.32343856 -0.67531127 0
2.027 0.31988427 -0.67531127 0
2.027 0.31633002 -0.67531127 0
2.027 0.31277573 -0.67531127 0
2.027 0.30922148 -0.67531127 0
2.027 0.30566719 -0.67531127 0
2.0150001 0.30032441 -0.67131335 0
2.0150001 0.2967912 -0.67131335 0
1.6900001 0.065193757 -0.56303704 0
1.6900001 0.062230408 -0.56303704 0
1.681 0.05895143 -0.56003857 0
1.681 0.056003857 -0.56003857 0
1.681 0.053056285 -0.56003857 1.2070409e-38
1.6900001 0.050376996 -0.56303704 1.2436307e-38
1.6900001 0.047413643 -0.56303704 1.2067158e-38
1.6900001 0.044450291 -0.56303704 1.1789848e-38
1.698 0.041683324 -0.56570226 0
1.698 0.038705945 -0.56570226 0
1.698 0.035728563 -0.56570226 0
1.706 0.032905485 -0.56836748 0
1.706 0.029914079 -0.56836748 0
1.706 0.026922673 -0.56836748 0
1.698 0.023819042 -0.56570226 0
1.698 0.020841662 -0.56570226 0
1.6900001 0.017780116 -0.56303704 0
1.6900001 0.014816765 -0.56303704 0
1.6900001 0.011853411 -0.56303704 1.2623212e-38
1.6900001 0.0088900579 -0.56303704 1.3084187e-38
1.6900001 0.0059267054 -0.56303704 1.3360058e-38
1.681 0.0029475715 -0.56003857 1.3266783e-38
1.681 -0 -0.56003857 1.3450812e-38
1.681 -0.0029475715 -0.56003857 1.3358616e-38
1.681 -0.0058951429 -0.56003857 1.3174941e-38
1.673 -0.0088006314 -0.55737334 1.3174941e-38
1.673 -0.011734175 -0.55737334 1.3174579e-38
1.673 -0.014667719 -0.55737334 1.2990188e-38
1.98 -0.17359285 -0.65965283 0
1.98 -0.17706472 -0.65965283 0
1.98 -0.18053657 -0.65965283 0
1.969 -0.18298616 -0.65598804 0
1.969 -0.18643871 -0.65598804 1.2809784e-38
1.9579999 -0.18883044 -0.65232331 1.2900536e-38
1.9579999 -0.19226372 -0.65232331 0
1.9579999 -0.19569699 -0.65232331 0
1.947 -0.19801158 -0.64865857 0
1.947 -0.20142557 -0.64865857 0
2.027 0.32343856 -0.67886549 0
2.027 0.31988427 -0.67886549 0
2.027 0.31633002 -0.67886549 0
2.027 0.31277573 -0.67886549 0
2.027 0.30922148 -0.67886549 0
2.027 0.30566719 -0.67886549 0
2.0150001 0.30032441 -0.67484665 0
2.0150001 0.2967912 -0.67484665 0
1.698 0.068479754 -0.56867963 0
1.6900001 0.065193757 -0.5660004 0
1.6900001 0.062230408 -0.5660004 0
1.681 0.05895143 -0.56298614 0
1.681 0.056003857 -0.56298614 0
1.681 0.053056285 -0.56298614 1.1886018e-38
1.6900001 0.050376996 -0.5660004 1.2344111e-38
1.6900001 0.047413643 -0.5660004 1.1974963e-38
1.6900001 0.044450291 -0.5660004 0
1.698 0.041683324 -0.56867963 0
1.698 0.038705945 -0.56867963 0
1.698 0.035728563 -0.56867963 0
1.706 0.032905485 -0.57135898 0
1.706 0.029914079 -0.57135898 0
1.698 0.026796423 -0.56867963 0
1.698 0.023819042 -0.56867963 0
1.698 0.020841662 -0.56867963 0
1.6900001 0.017780116 -0.5660004 0
1.6900001 0.014816765 -0.5660004 0
1.6900001 0.011853411 -0.5660004 1.2714691e-38
1.6900001 0.0088900579 -0.5660004 1.3175667e-38
1.681 0.0058951429 -0.56298614 1.3360058e-38
1.681 0.0029475715 -0.56298614 1.3359335e-38
1.681 -0 -0.56298614 1.3450812e-38
1.681 -0.0029475715 -0.56298614 1.3358616e-38
1.681 -0.0058951429 -0.56298614 1.3267139e-38
1.681 -0.0088427151 -0.56298614 1.3267137e-38
1.673 -0.011734175 -0.56030685 1.3266418e-38
1.673 -0.014667719 -0.56030685 1.2897992e-38
1.98 -0.17359285 -0.66312468 0
1.98 -0.17706472 -0.66312468 0
1.98 -0.18053657 -0.66312468 0
1.969 -0.18298616 -0.6594407 0
1.969 -0.18643871 -0.6594407 0
1.969 -0.18989128 -0.6594407 1.2348803e-38
1.9579999 -0.19226372 -0.65575665 0
1.9579999 -0.19569699 -0.65575665 0
1.947 -0.19801158 -0.65207261 0
2.027 0.32343856 -0.68241978 0
2.027 0.31988427 -0.68241978 0
2.027 0.31633002 -0.68241978 0
2.0150001 0.31092408 -0.67837983 0
2.027 0.30922148 -0.68241978 0
2.027 0.30566719 -0.68241978 0
2.027 0.30211294 -0.68241978 0
2.027 0.29855865 -0.68241978 0
1.698 0.068479754 -0.571657 0
1.6900001 0.065193757 -0.56896371 0
1.681 0.061898999 -0.56593376 0
1.681 0.05895143 -0.56593376 0
1.681 0.056003857 -0.56593376 0
1.681 0.053056285 -0.56593376 1.1794544e-38
1.681 0.050108716 -0.56593376 1.2344833e-38
1.6900001 0.047413643 -0.56896371 1.2067161e-38
1.6900001 0.044450291 -0.56896371 0
1.698 0.041683324 -0.571657 0
1.698 0.038705945 -0.571657 0
1.698 0.035728563 -0.571657 0
1.706 0.032905485 -0.57435036 0
1.706 0.029914079 -0.57435036 0
1.698 0.026796423 -0.571657 0
1.698 0.023819042 -0.571657 0
1.698 0.020841662 -0.571657 0
1.6900001 0.017780116 -0.56896371 0
1.6900001 0.014816765 -0.56896371 0
1.6900001 0.011853411 -0.56896371 1.3082398e-38
1.6900001 0.0088900579 -0.56896371 1.3451177e-38
1.681 0.0058951429 -0.56593376 1.354337e-38
1.681 0.0029475715 -0.56593376 1.3451531e-38
1.681 -0 -0.56593376 1.3543007e-38
1.681 -0.0029475715 -0.56593376 1.3543007e-38
1.681 -0.0058951429 -0.56593376 1.3267139e-38
1.673 -0.0088006314 -0.56324041 1.3174944e-38
1.673 -0.011734175 -0.56324041 1.3174225e-38
1.673 -0.014667719 -0.56324041 1.2989471e-38
1.992 -0.17464493 -0.67063648 0
1.98 -0.18053657 -0.66659653 0
1.969 -0.18298616 -0.66289324 0
1.969 -0.18643871 -0.66289324 0
1.969 -0.18989128 -0.66289324 1.2258768e-38
1.9579999 -0.19226372 -0.65918988 0
1.9579999 -0.19569699 -0.65918988 0
1.9579999 -0.19913028 -0.65918988 0
2.027 0.32699281 -0.68597406 0
2.027 0.32343856 -0.68597406 0
2.0150001 0.31799054 -0.68191308 0
2.0150001 0.31445733 -0.68191308 0
2.0150001 0.31092408 -0.68191308 0
2.027 0.30922148 -0.68597406 0
2.027 0.30566719 -0.68597406 0
2.027 0.30211294 -0.68597406 0
2.027 0.29855865 -0.68597406 0
1.698 0.068479754 -0.57463437 0
1.6900001 0.065193757 -0.57192707 0
1.6900001 0.062230408 -0.57192707 0
1.681 0.05895143 -0.56888133 0
1.681 0.056003857 -0.56888133 0
1.681 0.053056285 -0.56888133 1.1794188e-38
1.681 0.050108716 -0.56888133 1.2067888e-38
1.6900001 0.047413643 -0.57192707 1.1974966e-38
1.6900001 0.044450291 -0.57192707 0
1.6900001 0.041486938 -0.57192707 0
1.698 0.038705945 -0.57463437 0
1.698 0.035728563 -0.57463437 0
1.698 0.032751184 -0.57463437 0
1.698 0.029773803 -0.57463437 0
1.698 0.026796423 -0.57463437 0
1.698 0.023819042 -0.57463437 0
1.698 0.020841662 -0.57463437 0
1.6900001 0.017780116 -0.57192707 0
1.6900001 0.014816765 -0.57192707 0
1.6900001 0.011853411 -0.57192707 1.2990202e-38
1.6900001 0.0088900579 -0.57192707 1.3266786e-38
1.681 0.0058951429 -0.56888133 1.3358979e-38
1.681 0.0029475715 -0.56888133 1.3267139e-38
1.673 -0 -0.56617397 1.3727036e-38
1.673 -0.0029335439 -0.56617397 1.3543007e-38
1.681 -0.0058951429 -0.56888133 1.3358616e-38
1.673 -0.0088006314 -0.56617397 1.3174944e-38
1.673 -0.011734175 -0.56617397 1.326642e-38
1.673 -0.014667719 -0.56617397 1.3081666e-38
1.992 -0.17813782 -0.67412943 0
1.992 -0.18163073 -0.67412943 0
1.969 -0.18298616 -0.66634578 0
1.969 -0.18643871 -0.66634578 0
1.969 -0.18989128 -0.66634578 0
1.9579999 -0.19226372 -0.66262317 0
1.9579999 -0.19569699 -0.66262317 0
1.9579999 -0.19913028 -0.66262317 0
2.0150001 0.325057 -0.68544632 0
2.0150001 0.32152379 -0.68544632 0
2.0150001 0.31799054 -0.68544632 0
2.027 0.31633002 -0.68952829 0
2.0150001 0.31092408 -0.68544632 0
2.027 0.30922148 -0.68952829 0
2.0150001 0.30385765 -0.68544632 0
2.0150001 0.30032441 -0.68544632 0
1.6900001 0.068157114 -0.57489043 0
1.6900001 0.065193757 -0.57489043 0
1.681 0.061898999 -0.5718289 0
1.681 0.05895143 -0.5718289 0
1.681 0.056003857 -0.5718289 0
1.681 0.053056285 -0.5718289 1.197858e-38
1.681 0.050108716 -0.5718289 1.2805454e-38
1.6900001 0.047413643 -0.57489043 1.2067161e-38
1.6900001 0.044450291 -0.57489043 0
1.6900001 0.041486938 -0.57489043 0
1.698 0.038705945 -0.57761174 0
1.698 0.035728563 -0.57761174 0
1.706 0.032905485 -0.58033317 0
1.698 0.029773803 -0.57761174 0
1.706 0.026922673 -0.58033317 0
1.698 0.023819042 -0.57761174 0
1.698 0.020841662 -0.57761174 0
1.698 0.017864281 -0.57761174 0
1.6900001 0.014816765 -0.57489043 1.179094e-38
1.6900001 0.011853411 -0.57489043 1.2898006e-38
1.6900001 0.0088900579 -0.57489043 1.3266786e-38
1.681 0.0058951429 -0.5718289 1.3358979e-38
1.681 0.0029475715 -0.5718289 1.3267139e-38
1.673 -0 -0.56910747 1.372668e-38
1.673 -0.0029335439 -0.56910747 1.3450812e-38
1.665 -0.0058390321 -0.5663861 1.326642e-38
1.673 -0.0088006314 -0.56910747 1.3174944e-38
1.665 -0.011678064 -0.5663861 1.3174225e-38
1.665 -0.01459758 -0.5663861 1.2989471e-38
1.992 -0.17464493 -0.67762232 0
1.992 -0.18163073 -0.67762232 0
1.98 -0.18400842 -0.67354023 0
1.969 -0.18643871 -0.66979837 0
1.9579999 -0.18883044 -0.66605645 0
1.9579999 -0.19226372 -0.66605645 0
1.9579999 -0.19569699 -0.66605645 0
1.9579999 -0.19913028 -0.66605645 0
2.003 0.32312116 -0.68487638 0
2.0150001 0.32152379 -0.68897951 0
2.0150001 0.31799054 -0.68897951 0
2.0150001 0.31445733 -0.68897951 0
2.0150001 0.31092408 -0.68897951 0
2.0150001 0.30739087 -0.68897951 0
2.0150001 0.30385765 -0.68897951 0
2.0150001 0.30032441 -0.68897951 0
1.698 0.071457125 -0.58058918 0
1.6900001 0.065193757 -0.5778538 0
1.6900001 0.062230408 -0.5778538 0
1.681 0.05895143 -0.57477647 0
1.681 0.056003857 -0.57477647 0
1.681 0.053056285 -0.57477647 0
1.681 0.050108716 -0.57477647 1.2621062e-38
1.6900001 0.047413643 -0.5778538 1.2067161e-38
1.6900001 0.044450291 -0.5778538 0
1.6900001 0.041486938 -0.5778538 0
1.6900001 0.038523588 -0.5778538 0
1.698 0.035728563 -0.58058918 0
1.698 0.032751184 -0.58058918 0
1.698 0.029773803 -0.58058918 0
1.706 0.026922673 -0.58332455 0
1.698 0.023819042 -0.58058918 0
1.698 0.020841662 -0.58058918 0
1.698 0.017864281 -0.58058918 0
1.6900001 0.014816765 -0.5778538 1.1790937e-38
1.6900001 0.011853411 -0.5778538 1.2990199e-38
1.6900001 0.0088900579 -0.5778538 1.3266783e-38
1.681 0.0058951429 -0.57477647 1.3451531e-38
1.681 0.0029475715 -0.57477647 1.3359335e-38
1.673 -0 -0.57204103 1.372668e-38
1.665 -0.0029195161 -0.5693056 1.3450812e-38
1.665 -0.0058390321 -0.5693056 1.326642e-38
1.6569999 -0.008716465 -0.56657022 1.3082748e-38
1.6569999 -0.011621953 -0.56657022 1.3082026e-38
1.6569999 -0.014527442 -0.56657022 1.2713244e-38
1.992 -0.17813782 -0.68111521 0
1.992 -0.18163073 -0.68111521 0
1.98 -0.18400842 -0.67701215 0
1.98 -0.18748027 -0.67701215 0
1.969 -0.18989128 -0.67325091 0
1.969 -0.19334386 -0.67325091 0
1.9579999 -0.19569699 -0.66948974 0
1.9579999 -0.19913028 -0.66948974 0
2.003 0.32663336 -0.68838859 0
2.003 0.32312116 -0.68838859 0
2.0150001 0.32152379 -0.69251281 0
2.0150001 0.31799054 -0.69251281 0
2.0150001 0.31445733 -0.69251281 0
2.0150001 0.31092408 -0.69251281 0
2.0150001 0.30739087 -0.69251281 0
2.0150001 0.30385765 -0.69251281 0
2.0150001 0.30032441 -0.69251281 0
1.698 0.071457125 -0.58356655 0
1.6900001 0.068157114 -0.58081716 0
1.6900001 0.065193757 -0.58081716 0
1.681 0.061898999 -0.57772404 0
1.681 0.056003857 -0.57772404 0
1.681 0.053056285 -0.57772404 0
1.681 0.050108716 -0.57772404 1.2161163e-38
1.681 0.047161143 -0.57772404 1.1974966e-38
1.6900001 0.044450291 -0.58081716 0
1.6900001 0.041486938 -0.58081716 0
1.6900001 0.038523588 -0.58081716 0
1.6900001 0.035560232 -0.58081716 0
1.698 0.032751184 -0.58356655 0
1.698 0.029773803 -0.58356655 0
1.706 0.026922673 -0.58631599 0
1.698 0.023819042 -0.58356655 0
1.698 0.020841662 -0.58356655 0
1.698 0.017864281 -0.58356655 0
1.698 0.014886902 -0.58356655 1.1790937e-38
1.6900001 0.011853411 -0.58081716 1.2990199e-38
1.6900001 0.0088900579 -0.58081716 1.3266783e-38
1.681 0.0058951429 -0.57772404 1.3451531e-38
1.681 0.0029475715 -0.57772404 1.3451531e-38
1.673 -0 -0.5749746 1.3634487e-38
1.665 -0.0029195161 -0.57222515 1.3358616e-38
1.6569999 -0.0058109765 -0.56947571 1.3174225e-38
1.6569999 -0.008716465 -0.56947571 1.3082745e-38
1.6569999 -0.011621953 -0.56947571 1.299055e-38
1.6569999 -0.014527442 -0.56947571 1.2621048e-38
1.992 -0.17813782 -0.6846081 0
1.992 -0.18163073 -0.6846081 0
1.98 -0.18400842 -0.680484 0
1.98 -0.18748027 -0.680484 0
1.969 -0.18989128 -0.67670351 0
1.969 -0.19334386 -0.67670351 1.2165853e-38
1.969 -0.19679643 -0.67670351 0
1.9579999 -0.19913028 -0.67292297 0
2.0150001 0.32859024 -0.69604599 0
2.0150001 0.32152379 -0.69604599 0
2.003 0.31609681 -0.69190079 0
2.0150001 0.31445733 -0.69604599 0
2.0150001 0.31092408 -0.69604599 0
2.0150001 0.30739087 -0.69604599 0
2.0150001 0.30385765 -0.69604599 0
2.0150001 0.30032441 -0.69604599 0
1.698 0.071457125 -0.58654392 0
1.6900001 0.065193757 -0.58378053 0
1.681 0.061898999 -0.58067161 0
1.681 0.056003857 -0.58067161 0
1.681 0.053056285 -0.58067161 0
1.681 0.050108716 -0.58067161 1.2069686e-38
1.681 0.047161143 -0.58067161 0
1.681 0.044213574 -0.58067161 0
1.681 0.041266002 -0.58067161 0
1.6900001 0.038523588 -0.58378053 0
1.6900001 0.035560232 -0.58378053 0
1.6900001 0.032596879 -0.58378053 0
1.698 0.029773803 -0.58654392 0
1.698 0.026796423 -0.58654392 0
1.698 0.023819042 -0.58654392 0
1.698 0.020841662 -0.58654392 0
1.698 0.017864281 -0.58654392 0
1.698 0.014886902 -0.58654392 1.1790937e-38
1.6900001 0.011853411 -0.58378053 1.2898001e-38
1.6900001 0.0088900579 -0.58378053 1.3174588e-38
1.673 0.0058670877 -0.5779081 1.3359335e-38
1.673 0.0029335439 -0.5779081 1.3267139e-38
1.673 -0 -0.5779081 1.3542291e-38
1.665 -0.0029195161 -0.57514471 1.3358619e-38
1.6569999 -0.0058109765 -0.5723812 1.3174941e-38
1.6569999 -0.008716465 -0.5723812 1.3082745e-38
1.6569999 -0.011621953 -0.5723812 1.3082745e-38
1.6569999 -0.014527442 -0.5723812 1.280544e-38
1.992 -0.18163073 -0.68810105 0
1.98 -0.18400842 -0.68395585 0
1.98 -0.18748027 -0.68395585 0
1.969 -0.18989128 -0.68015611 0
1.9579999 -0.19226372 -0.67635632 1.2626834e-38
1.9579999 -0.19569699 -0.67635632 1.1795986e-38
1.9579999 -0.19913028 -0.67635632 0
1.936 -0.20028757 -0.66875678 0
2.0150001 0.32859024 -0.69957924 0
2.0150001 0.32152379 -0.69957924 0
2.0150001 0.31799054 -0.69957924 0
2.0150001 0.31445733 -0.69957924 0
2.0150001 0.31092408 -0.69957924 0
2.0150001 0.30739087 -0.69957924 0
2.003 0.30204806 -0.69541293 0
2.003 0.29853588 -0.69541293 0
1.698 0.071457125 -0.58952129 0
1.698 0.065502368 -0.58952129 0
1.681 0.061898999 -0.58361918 0
1.681 0.056003857 -0.58361918 0
1.681 0.053056285 -0.58361918 0
1.681 0.050108716 -0.58361918 1.2162961e-38
1.681 0.047161143 -0.58361918 0
1.681 0.044213574 -0.58361918 0
1.681 0.041266002 -0.58361918 0
1.6900001 0.038523588 -0.58674389 0
1.6900001 0.035560232 -0.58674389 0
1.6900001 0.032596879 -0.58674389 0
1.698 0.029773803 -0.58952129 0
1.698 0.026796423 -0.58952129 0
1.698 0.023819042 -0.58952129 0
1.698 0.020841662 -0.58952129 0
1.698 0.017864281 -0.58952129 0
1.698 0.014886902 -0.58952129 1.1790937e-38
1.6900001 0.011853411 -0.58674389 1.2805805e-38
1.6900001 0.0088900579 -0.58674389 1.3082392e-38
1.681 0.0058951429 -0.58361918 1.3267139e-38
1.681 0.0029475715 -0.58361918 1.3174944e-38
1.681 -0 -0.58361918 1.3450096e-38
1.673 -0.0029335439 -0.58084166 1.3450815e-38
1.6569999 -0.0058109765 -0.57528669 1.3174941e-38
1.673 -0.0088006314 -0.58084166 1.2899432e-38
1.992 -0.18163073 -0.69159389 0
1.992 -0.18512362 -0.69159389 0
1.969 -0.18643871 -0.68360865 0
1.969 -0.18989128 -0.68360865 0
1.9579999 -0.19226372 -0.6797896 0
1.9579999 -0.19569699 -0.6797896 0
1.947 -0.19801158 -0.67597055 0
1.936 -0.20028757 -0.67215151 0
2.0150001 0.32859024 -0.70311242 0
2.0150001 0.32152379 -0.70311242 0
2.0150001 0.31799054 -0.70311242 0
2.0150001 0.31445733 -0.70311242 0
2.0150001 0.31092408 -0.70311242 0
2.0150001 0.30739087 -0.70311242 0
2.003 0.30204806 -0.6989252 0
2.003 0.29853588 -0.6989252 0
1.698 0.071457125 -0.59249866 0
1.698 0.068479754 -0.59249866 0
1.6900001 0.065193757 -0.5897072 0
1.681 0.061898999 -0.58656675 0
1.681 0.05895143 -0.58656675 0
1.681 0.056003857 -0.58656675 0
1.681 0.053056285 -0.58656675 0
1.681 0.050108716 -0.58656675 1.2162605e-38
1.681 0.047161143 -0.58656675 1.1883136e-38
1.681 0.044213574 -0.58656675 0
1.681 0.041266002 -0.58656675 0
1.6900001 0.038523588 -0.5897072 0
1.6900001 0.035560232 -0.5897072 0
1.6900001 0.032596879 -0.5897072 0
1.6900001 0.029633529 -0.5897072 0
1.698 0.026796423 -0.59249866 0
1.698 0.023819042 -0.59249866 0
1.698 0.020841662 -0.59249866 0
1.698 0.017864281 -0.59249866 0
1.698 0.014886902 -0.59249866 1.1883133e-38
1.6900001 0.011853411 -0.5897072 1.2898004e-38
1.6900001 0.0088900579 -0.5897072 1.3082392e-38
1.6900001 0.0059267054 -0.5897072 1.3266783e-38
1.681 0.0029475715 -0.58656675 1.3174588e-38
1.681 -0 -0.58656675 1.3358263e-38
1.673 -0.0029335439 -0.58377522 1.3450815e-38
1.665 -0.0058390321 -0.5809837 1.3267137e-38
1.992 -0.18512362 -0.69508678 0
1.969 -0.18643871 -0.68706119 0
1.969 -0.18989128 -0.68706119 0
1.9579999 -0.19226372 -0.68322289 0
1.947 -0.19459759 -0.67938453 1.2441717e-38
1.936 -0.19689287 -0.67554623 0
1.925 -0.19914956 -0.67170787 0
2.003 0.33014554 -0.70243734 0
2.003 0.32663336 -0.70243734 0
2.003 0.32312116 -0.70243734 0
2.003 0.31960899 -0.70243734 0
2.003 0.31609681 -0.70243734 0
2.0150001 0.31445733 -0.70664567 0
2.003 0.30907243 -0.70243734 0
2.0150001 0.30739087 -0.70664567 0
2.003 0.30204806 -0.70243734 0
2.003 0.29853588 -0.70243734 0
2.4960001 0.14005262 -0.87532884 0
1.698 0.071457125 -0.59547603 0
1.6900001 0.068157114 -0.59267056 0
1.6900001 0.065193757 -0.59267056 0
1.681 0.061898999 -0.58951432 0
1.681 0.05895143 -0.58951432 0
1.681 0.056003857 -0.58951432 0
1.681 0.053056285 -0.58951432 0
1.681 0.050108716 -0.58951432 1.2071128e-38
1.681 0.047161143 -0.58951432 0
1.681 0.044213574 -0.58951432 0
1.681 0.041266002 -0.58951432 0
1.6900001 0.038523588 -0.59267056 0
1.6900001 0.035560232 -0.59267056 0
1.698 0.032751184 -0.59547603 0
1.698 0.029773803 -0.59547603 0
1.698 0.026796423 -0.59547603 0
1.698 0.023819042 -0.59547603 0
1.698 0.020841662 -0.59547603 0
1.698 0.017864281 -0.59547603 0
1.698 0.014886902 -0.59547603 1.1883855e-38
1.698 0.011909521 -0.59547603 1.2990202e-38
1.698 0.0089321407 -0.59547603 1.3451177e-38
